5.895776748657226562e-01 1.275501120835542679e-02 1.015176847577095032e-01 0.000000000000000000e+00
6.134586930274963379e-01 -6.267061084508895874e-02 1.349086314439773560e-01 0.000000000000000000e+00
7.885420322418212891e-01 2.569842338562011719e-01 1.463616937398910522e-01 2.000000000000000000e+00
1.695005536079406738e+00 4.108262360095977783e-01 8.758451938629150391e-01 1.000000000000000000e+00
7.796443104743957520e-01 2.657127976417541504e-01 1.237792372703552246e-01 2.000000000000000000e+00
6.028198003768920898e-01 -4.809725657105445862e-02 1.667347550392150879e-01 0.000000000000000000e+00
6.217500567436218262e-01 -6.073564663529396057e-02 7.552801072597503662e-02 0.000000000000000000e+00
7.525410056114196777e-01 -3.036053478717803955e-01 6.784550100564956665e-02 3.000000000000000000e+00
5.739413499832153320e-01 4.580179974436759949e-02 9.283312410116195679e-02 0.000000000000000000e+00
5.637610554695129395e-01 7.778228819370269775e-02 1.138892620801925659e-01 0.000000000000000000e+00
5.955079197883605957e-01 -1.327790901996195316e-03 1.096443533897399902e-01 0.000000000000000000e+00
6.079912781715393066e-01 -3.672131150960922241e-02 6.569533795118331909e-02 0.000000000000000000e+00
7.168204188346862793e-01 -1.705208122730255127e-01 9.456073492765426636e-02 3.000000000000000000e+00
5.741719603538513184e-01 6.808585673570632935e-02 1.228434145450592041e-01 0.000000000000000000e+00
5.856968164443969727e-01 2.490089833736419678e-02 1.060908064246177673e-01 0.000000000000000000e+00
7.689428329467773438e-01 2.643593549728393555e-01 6.703046709299087524e-02 2.000000000000000000e+00
1.710581541061401367e+00 3.457159698009490967e-01 7.639818787574768066e-01 1.000000000000000000e+00
5.873107314109802246e-01 1.708580739796161652e-02 7.922815531492233276e-02 0.000000000000000000e+00
7.765769362449645996e-01 2.554013431072235107e-01 1.267670094966888428e-01 2.000000000000000000e+00
5.779256820678710938e-01 6.422112882137298584e-02 1.270944029092788696e-01 0.000000000000000000e+00
5.801213383674621582e-01 3.418155014514923096e-02 8.777599781751632690e-02 0.000000000000000000e+00
5.866525769233703613e-01 1.619167439639568329e-02 7.826438546180725098e-02 0.000000000000000000e+00
5.840122103691101074e-01 5.705805495381355286e-02 1.310460567474365234e-01 0.000000000000000000e+00
5.886222124099731445e-01 1.536811143159866333e-02 1.083765551447868347e-01 0.000000000000000000e+00
5.801775455474853516e-01 -1.328235566616058350e-01 1.587414443492889404e-01 0.000000000000000000e+00
5.625795722007751465e-01 -1.531281024217605591e-01 1.623173058032989502e-01 0.000000000000000000e+00
6.200728416442871094e-01 1.156508456915616989e-02 1.493108272552490234e-01 0.000000000000000000e+00
6.407982707023620605e-01 4.062395170331001282e-02 2.145132720470428467e-01 0.000000000000000000e+00
8.077387213706970215e-01 2.620356678962707520e-01 1.860668212175369263e-01 2.000000000000000000e+00
5.901821255683898926e-01 5.149910226464271545e-02 1.394725292921066284e-01 0.000000000000000000e+00
6.106188297271728516e-01 -4.871951416134834290e-02 1.524987369775772095e-01 0.000000000000000000e+00
6.094347834587097168e-01 -2.862780727446079254e-02 9.493820369243621826e-02 0.000000000000000000e+00
6.162084341049194336e-01 -2.435065433382987976e-02 1.612472534179687500e-01 0.000000000000000000e+00
5.754907727241516113e-01 -6.995022296905517578e-02 1.909342855215072632e-01 0.000000000000000000e+00
7.574359774589538574e-01 -3.372119963169097900e-01 5.811943486332893372e-02 3.000000000000000000e+00
7.525770068168640137e-01 1.711809188127517700e-01 2.205033749341964722e-01 2.000000000000000000e+00
7.556086182594299316e-01 -2.541287541389465332e-01 8.164584636688232422e-02 3.000000000000000000e+00
5.730419754981994629e-01 4.573002830147743225e-02 8.585016429424285889e-02 0.000000000000000000e+00
6.125808954238891602e-01 -6.806287914514541626e-02 1.374565660953521729e-01 0.000000000000000000e+00
5.862641930580139160e-01 4.853400588035583496e-02 1.289281547069549561e-01 0.000000000000000000e+00
7.769935131072998047e-01 2.694448828697204590e-01 8.975093811750411987e-02 2.000000000000000000e+00
8.293431997299194336e-01 2.863616645336151123e-01 2.157826423645019531e-01 2.000000000000000000e+00
7.501438856124877930e-01 -2.936876118183135986e-01 7.769886404275894165e-02 3.000000000000000000e+00
6.022694706916809082e-01 -2.559638395905494690e-02 6.058568507432937622e-02 0.000000000000000000e+00
6.421554684638977051e-01 9.338723123073577881e-02 2.063477039337158203e-01 0.000000000000000000e+00
5.940547585487365723e-01 1.333527965471148491e-03 1.040606275200843811e-01 0.000000000000000000e+00
6.211591362953186035e-01 1.992341503500938416e-02 1.504988521337509155e-01 0.000000000000000000e+00
7.634624838829040527e-01 1.702408343553543091e-01 2.441893219947814941e-01 2.000000000000000000e+00
7.574263811111450195e-01 -2.649073600769042969e-01 5.247023329138755798e-02 3.000000000000000000e+00
5.724785923957824707e-01 5.593121796846389771e-02 1.062580570578575134e-01 0.000000000000000000e+00
7.516664266586303711e-01 -2.808304727077484131e-01 6.552444398403167725e-02 3.000000000000000000e+00
7.663364410400390625e-01 -2.451639771461486816e-01 7.251817733049392700e-02 3.000000000000000000e+00
5.651906132698059082e-01 -1.369792819023132324e-01 1.647565960884094238e-01 0.000000000000000000e+00
5.847715735435485840e-01 2.398938313126564026e-02 9.458487480878829956e-02 0.000000000000000000e+00
6.458683609962463379e-01 1.064501628279685974e-01 2.162105441093444824e-01 0.000000000000000000e+00
6.000884175300598145e-01 -8.726044744253158569e-02 1.525539010763168335e-01 0.000000000000000000e+00
6.304917931556701660e-01 -7.475478947162628174e-02 6.060361489653587341e-02 0.000000000000000000e+00
6.124479174613952637e-01 -6.530772149562835693e-02 1.383401900529861450e-01 0.000000000000000000e+00
7.079119682312011719e-01 -1.546756625175476074e-01 1.335075944662094116e-01 3.000000000000000000e+00
6.613619327545166016e-01 -1.119530126452445984e-01 1.247285604476928711e-01 0.000000000000000000e+00
6.238927245140075684e-01 2.280268073081970215e-02 1.576748788356781006e-01 0.000000000000000000e+00
6.181959509849548340e-01 -1.613090001046657562e-02 1.414826214313507080e-01 0.000000000000000000e+00
6.180524826049804688e-01 -2.073624916374683380e-02 1.313097774982452393e-01 0.000000000000000000e+00
7.774037122726440430e-01 1.872633844614028931e-01 2.324154973030090332e-01 2.000000000000000000e+00
6.320685148239135742e-01 6.552404910326004028e-02 2.163045406341552734e-01 0.000000000000000000e+00
5.730249881744384766e-01 5.000197514891624451e-02 1.012315079569816589e-01 0.000000000000000000e+00
5.940636992454528809e-01 -7.841002196073532104e-02 1.651989370584487915e-01 0.000000000000000000e+00
8.257165551185607910e-01 2.333844453096389771e-01 2.628693878650665283e-01 2.000000000000000000e+00
6.178955435752868652e-01 -1.704464666545391083e-02 1.653750687837600708e-01 0.000000000000000000e+00
7.909820079803466797e-01 1.893544346094131470e-01 2.529912889003753662e-01 2.000000000000000000e+00
7.502845525741577148e-01 -2.635285854339599609e-01 9.338001906871795654e-02 3.000000000000000000e+00
7.221029400825500488e-01 -1.771624833345413208e-01 1.060276776552200317e-01 3.000000000000000000e+00
6.456400156021118164e-01 1.054495573043823242e-01 2.132451981306076050e-01 0.000000000000000000e+00
5.981840491294860840e-01 -3.118128050118684769e-03 8.515588939189910889e-02 0.000000000000000000e+00
5.887216329574584961e-01 3.293214738368988037e-02 1.329808831214904785e-01 0.000000000000000000e+00
5.694921612739562988e-01 -8.451014757156372070e-02 1.880947202444076538e-01 0.000000000000000000e+00
5.833239555358886719e-01 1.435976009815931320e-02 5.606978759169578552e-02 0.000000000000000000e+00
7.667962312698364258e-01 -2.441673874855041504e-01 7.027435302734375000e-02 3.000000000000000000e+00
5.941909551620483398e-01 2.220063004642724991e-03 9.876711666584014893e-02 0.000000000000000000e+00
8.106265664100646973e-01 2.412097603082656860e-01 2.084947973489761353e-01 2.000000000000000000e+00
8.243322372436523438e-01 2.452880144119262695e-01 2.501338720321655273e-01 2.000000000000000000e+00
6.247770786285400391e-01 -6.382688879966735840e-02 8.894160389900207520e-02 0.000000000000000000e+00
5.814527869224548340e-01 -1.218414977192878723e-01 1.573559045791625977e-01 0.000000000000000000e+00
5.951849222183227539e-01 -9.187368303537368774e-02 1.566336154937744141e-01 0.000000000000000000e+00
5.934520363807678223e-01 2.217302331700921059e-03 1.119212061166763306e-01 0.000000000000000000e+00
8.183868527412414551e-01 2.239890694618225098e-01 2.507710456848144531e-01 2.000000000000000000e+00
8.190649747848510742e-01 2.315044254064559937e-01 2.473139613866806030e-01 2.000000000000000000e+00
5.973311662673950195e-01 -5.122298747301101685e-02 1.759075969457626343e-01 0.000000000000000000e+00
6.691315770149230957e-01 -1.292362660169601440e-01 1.401659101247787476e-01 3.000000000000000000e+00
6.175548434257507324e-01 -1.887740008533000946e-02 1.717314124107360840e-01 0.000000000000000000e+00
6.106015443801879883e-01 -3.323614224791526794e-02 8.419149369001388550e-02 0.000000000000000000e+00
5.898103117942810059e-01 3.915091603994369507e-02 1.367455720901489258e-01 0.000000000000000000e+00
5.918831229209899902e-01 -6.929433345794677734e-02 1.672409176826477051e-01 0.000000000000000000e+00
5.996630191802978516e-01 -4.516221210360527039e-02 1.792774796485900879e-01 0.000000000000000000e+00
6.332129240036010742e-01 -8.074400573968887329e-02 7.219833135604858398e-02 0.000000000000000000e+00
7.315900921821594238e-01 -1.958574652671813965e-01 1.041472107172012329e-01 3.000000000000000000e+00
1.686157941818237305e+00 4.162264466285705566e-01 8.662436604499816895e-01 1.000000000000000000e+00
6.249508857727050781e-01 4.707757616415619850e-04 1.709918081760406494e-01 0.000000000000000000e+00
7.199348211288452148e-01 -1.734092235565185547e-01 1.003404557704925537e-01 3.000000000000000000e+00
5.873576998710632324e-01 5.698682740330696106e-03 5.295335873961448669e-02 0.000000000000000000e+00
6.069584488868713379e-01 -5.476436764001846313e-02 1.543003916740417480e-01 0.000000000000000000e+00
5.802868604660034180e-01 2.986384555697441101e-02 8.260808885097503662e-02 0.000000000000000000e+00
6.169990897178649902e-01 -1.978066004812717438e-02 1.596136540174484253e-01 0.000000000000000000e+00
5.619037747383117676e-01 -1.118785589933395386e-01 1.788837909698486328e-01 0.000000000000000000e+00
7.934035062789916992e-01 2.668520510196685791e-01 1.496307551860809326e-01 2.000000000000000000e+00
7.912980914115905762e-01 2.508011460304260254e-01 1.539545357227325439e-01 2.000000000000000000e+00
7.269574999809265137e-01 -1.881117522716522217e-01 1.295097172260284424e-01 3.000000000000000000e+00
6.208915114402770996e-01 -6.065178290009498596e-02 6.245898082852363586e-02 0.000000000000000000e+00
7.507086396217346191e-01 -2.871906757354736328e-01 6.656062602996826172e-02 3.000000000000000000e+00
5.836520195007324219e-01 3.090753965079784393e-02 1.039794087409973145e-01 0.000000000000000000e+00
6.249778270721435547e-01 7.927978411316871643e-03 1.672705858945846558e-01 0.000000000000000000e+00
6.035436391830444336e-01 -6.885912269353866577e-02 1.534322798252105713e-01 0.000000000000000000e+00
6.132121682167053223e-01 -3.886583819985389709e-02 1.568048000335693359e-01 0.000000000000000000e+00
1.686255931854248047e+00 4.162506163120269775e-01 8.486887812614440918e-01 1.000000000000000000e+00
7.853659391403198242e-01 2.454068809747695923e-01 1.457721889019012451e-01 2.000000000000000000e+00
6.390162110328674316e-01 4.146406054496765137e-02 2.110574692487716675e-01 0.000000000000000000e+00
6.022354364395141602e-01 -1.212152373045682907e-02 8.303795009851455688e-02 0.000000000000000000e+00
5.843326449394226074e-01 1.787069439888000488e-02 7.098267972469329834e-02 0.000000000000000000e+00
6.127828955650329590e-01 -3.426883369684219360e-02 1.009435281157493591e-01 0.000000000000000000e+00
7.986199855804443359e-01 1.971385776996612549e-01 2.530519962310791016e-01 2.000000000000000000e+00
5.673821568489074707e-01 -9.096698462963104248e-02 1.865515559911727905e-01 0.000000000000000000e+00
5.849689841270446777e-01 9.165407158434391022e-03 5.273800715804100037e-02 0.000000000000000000e+00
6.338922381401062012e-01 -7.988518476486206055e-02 5.336691811680793762e-02 0.000000000000000000e+00
7.625885009765625000e-01 1.780076920986175537e-01 2.245741188526153564e-01 2.000000000000000000e+00
7.726339101791381836e-01 1.861144304275512695e-01 2.056372612714767456e-01 2.000000000000000000e+00
6.237027049064636230e-01 -6.464737653732299805e-02 6.646276265382766724e-02 0.000000000000000000e+00
6.275610327720642090e-01 3.280743723735213280e-03 1.820019632577896118e-01 0.000000000000000000e+00
6.416392326354980469e-01 -9.521645307540893555e-02 1.076110154390335083e-01 0.000000000000000000e+00
7.581385970115661621e-01 -3.250864744186401367e-01 7.400392740964889526e-02 3.000000000000000000e+00
6.412625312805175781e-01 9.134449809789657593e-02 2.127558141946792603e-01 0.000000000000000000e+00
5.951628088951110840e-01 -6.701526045799255371e-02 1.646168977022171021e-01 0.000000000000000000e+00
1.630041360855102539e+00 3.853558003902435303e-01 6.259009838104248047e-01 1.000000000000000000e+00
6.025280952453613281e-01 -1.392474211752414703e-02 8.217963576316833496e-02 0.000000000000000000e+00
6.254822611808776855e-01 6.068576127290725708e-03 1.702042967081069946e-01 0.000000000000000000e+00
7.508590817451477051e-01 -2.850084304809570312e-01 5.537497997283935547e-02 3.000000000000000000e+00
6.323406696319580078e-01 -7.686026394367218018e-02 5.229316279292106628e-02 0.000000000000000000e+00
6.245119571685791016e-01 -6.193689629435539246e-02 1.000812947750091553e-01 0.000000000000000000e+00
7.219006419181823730e-01 -1.792662739753723145e-01 1.243019923567771912e-01 3.000000000000000000e+00
5.895285010337829590e-01 2.418452873826026917e-02 1.270082145929336548e-01 0.000000000000000000e+00
1.662042617797851562e+00 4.003579318523406982e-01 6.332309246063232422e-01 1.000000000000000000e+00
5.622424483299255371e-01 7.086414098739624023e-02 1.035195365548133850e-01 0.000000000000000000e+00
7.524377107620239258e-01 -2.721405923366546631e-01 1.082372814416885376e-01 3.000000000000000000e+00
7.164943218231201172e-01 -1.683059483766555786e-01 1.009295880794525146e-01 3.000000000000000000e+00
5.826191902160644531e-01 3.693563863635063171e-02 1.072712838649749756e-01 0.000000000000000000e+00
6.024601459503173828e-01 -1.302460953593254089e-02 8.217037469148635864e-02 0.000000000000000000e+00
7.583638429641723633e-01 -2.584486901760101318e-01 7.176373153924942017e-02 3.000000000000000000e+00
7.347740530967712402e-01 -2.021894007921218872e-01 1.133677363395690918e-01 3.000000000000000000e+00
8.203259706497192383e-01 2.465429306030273438e-01 2.305656075477600098e-01 2.000000000000000000e+00
6.265300512313842773e-01 3.130923584103584290e-02 1.667515635490417480e-01 0.000000000000000000e+00
6.241242885589599609e-01 3.262777114287018776e-03 1.661112755537033081e-01 0.000000000000000000e+00
5.941771864891052246e-01 -6.956291198730468750e-02 1.634580641984939575e-01 0.000000000000000000e+00
6.015185117721557617e-01 -1.031277701258659363e-02 8.563057333230972290e-02 0.000000000000000000e+00
5.735477209091186523e-01 -1.407155841588973999e-01 1.569274663925170898e-01 0.000000000000000000e+00
7.803313732147216797e-01 2.554722428321838379e-01 1.331991702318191528e-01 2.000000000000000000e+00
6.118560433387756348e-01 -4.516792669892311096e-02 6.976323574781417847e-02 0.000000000000000000e+00
8.284680843353271484e-01 2.650534510612487793e-01 2.328540682792663574e-01 2.000000000000000000e+00
8.070293664932250977e-01 1.992143988609313965e-01 2.677533626556396484e-01 2.000000000000000000e+00
5.692835450172424316e-01 -9.212090820074081421e-02 1.829313337802886963e-01 0.000000000000000000e+00
5.831029415130615234e-01 2.131185308098793030e-02 7.257268577814102173e-02 0.000000000000000000e+00
6.109368205070495605e-01 -2.869836427271366119e-02 1.799143254756927490e-01 0.000000000000000000e+00
8.108370900154113770e-01 2.848091721534729004e-01 1.638028025627136230e-01 2.000000000000000000e+00
5.624830722808837891e-01 -1.539407670497894287e-01 1.664841473102569580e-01 0.000000000000000000e+00
5.815580487251281738e-01 4.380746558308601379e-02 1.183519437909126282e-01 0.000000000000000000e+00
1.702052593231201172e+00 3.998412787914276123e-01 7.449411153793334961e-01 1.000000000000000000e+00
1.701683878898620605e+00 4.022927284240722656e-01 7.346276044845581055e-01 1.000000000000000000e+00
7.079142928123474121e-01 -1.588995605707168579e-01 1.440664976835250854e-01 3.000000000000000000e+00
7.534828186035156250e-01 -3.084805607795715332e-01 5.219704657793045044e-02 3.000000000000000000e+00
5.877170562744140625e-01 4.777770861983299255e-02 1.327539682388305664e-01 0.000000000000000000e+00
5.931765437126159668e-01 -8.979423344135284424e-02 1.596439331769943237e-01 0.000000000000000000e+00
7.276203036308288574e-01 -1.861127912998199463e-01 1.035820916295051575e-01 3.000000000000000000e+00
5.983330607414245605e-01 -5.844816192984580994e-02 1.654937714338302612e-01 0.000000000000000000e+00
7.519990801811218262e-01 -2.506715655326843262e-01 1.070525869727134705e-01 3.000000000000000000e+00
7.542907595634460449e-01 -3.133114278316497803e-01 7.250331342220306396e-02 3.000000000000000000e+00
5.878925919532775879e-01 -1.608948707580566406e-01 1.538376659154891968e-01 0.000000000000000000e+00
6.260876059532165527e-01 2.475050836801528931e-02 1.619647890329360962e-01 0.000000000000000000e+00
7.124747037887573242e-01 -1.609858423471450806e-01 1.173657253384590149e-01 3.000000000000000000e+00
6.226942539215087891e-01 9.756493382155895233e-03 1.573719978332519531e-01 0.000000000000000000e+00
6.193971037864685059e-01 -4.387696459889411926e-02 1.315954476594924927e-01 0.000000000000000000e+00
7.521289587020874023e-01 -2.709071338176727295e-01 1.059492826461791992e-01 3.000000000000000000e+00
5.665494799613952637e-01 5.788694694638252258e-02 8.825749903917312622e-02 0.000000000000000000e+00
6.124567985534667969e-01 -4.703921824693679810e-02 6.617784500122070312e-02 0.000000000000000000e+00
5.732196569442749023e-01 3.548479452729225159e-02 5.338864400982856750e-02 0.000000000000000000e+00
6.316848397254943848e-01 -7.678054273128509521e-02 7.673485577106475830e-02 0.000000000000000000e+00
5.788672566413879395e-01 5.741876363754272461e-02 1.195310950279235840e-01 0.000000000000000000e+00
7.615336179733276367e-01 -2.458990961313247681e-01 8.115024119615554810e-02 3.000000000000000000e+00
6.064568758010864258e-01 -7.280959188938140869e-02 1.460321545600891113e-01 0.000000000000000000e+00
5.658919811248779297e-01 -8.313187211751937866e-02 1.961898654699325562e-01 0.000000000000000000e+00
7.683079242706298828e-01 -2.389191389083862305e-01 7.270473241806030273e-02 3.000000000000000000e+00
6.403128504753112793e-01 -9.119954705238342285e-02 1.236239075660705566e-01 0.000000000000000000e+00
8.278046846389770508e-01 2.216280549764633179e-01 2.820540964603424072e-01 2.000000000000000000e+00
6.747270822525024414e-01 -1.242789030075073242e-01 1.342935860157012939e-01 3.000000000000000000e+00
5.958925485610961914e-01 5.110862478613853455e-02 1.514872312545776367e-01 0.000000000000000000e+00
5.794256925582885742e-01 3.500476852059364319e-02 9.199178218841552734e-02 0.000000000000000000e+00
7.577927708625793457e-01 -2.571238279342651367e-01 7.283993065357208252e-02 3.000000000000000000e+00
7.407404780387878418e-01 -2.292417287826538086e-01 1.330700069665908813e-01 3.000000000000000000e+00
7.531468868255615234e-01 -2.533008158206939697e-01 9.036632627248764038e-02 3.000000000000000000e+00
5.982900261878967285e-01 -9.949173778295516968e-02 1.503120213747024536e-01 0.000000000000000000e+00
8.126380443572998047e-01 2.187795341014862061e-01 2.405251860618591309e-01 2.000000000000000000e+00
5.719361901283264160e-01 -1.411732435226440430e-01 1.581926196813583374e-01 0.000000000000000000e+00
5.974863171577453613e-01 -4.005635157227516174e-03 9.664144366979598999e-02 0.000000000000000000e+00
5.708013176918029785e-01 -1.579200029373168945e-01 1.578787267208099365e-01 0.000000000000000000e+00
6.253715753555297852e-01 2.005852758884429932e-02 1.599140912294387817e-01 0.000000000000000000e+00
1.687033295631408691e+00 4.114101529121398926e-01 8.717257380485534668e-01 1.000000000000000000e+00
7.562381029129028320e-01 -3.287832438945770264e-01 5.238791555166244507e-02 3.000000000000000000e+00
6.003195643424987793e-01 -2.193203382194042206e-02 5.143582820892333984e-02 0.000000000000000000e+00
1.707115769386291504e+00 3.959384262561798096e-01 7.115110754966735840e-01 1.000000000000000000e+00
6.166043877601623535e-01 -5.973123479634523392e-03 1.337611079216003418e-01 0.000000000000000000e+00
5.945750474929809570e-01 -6.694908440113067627e-02 1.662279218435287476e-01 0.000000000000000000e+00
6.403185725212097168e-01 9.121003746986389160e-02 2.009822875261306763e-01 0.000000000000000000e+00
5.813694596290588379e-01 4.552747309207916260e-02 1.191806793212890625e-01 0.000000000000000000e+00
5.641137957572937012e-01 5.427260696887969971e-02 7.020930200815200806e-02 0.000000000000000000e+00
8.164415359497070312e-01 2.307629138231277466e-01 2.404332458972930908e-01 2.000000000000000000e+00
5.766415596008300781e-01 -9.933196008205413818e-02 1.706747859716415405e-01 0.000000000000000000e+00
5.988342761993408203e-01 -8.975753933191299438e-02 1.513419151306152344e-01 0.000000000000000000e+00
5.781790018081665039e-01 -1.461635828018188477e-01 1.547452360391616821e-01 0.000000000000000000e+00
6.196801066398620605e-01 -2.910907380282878876e-02 1.325798332691192627e-01 0.000000000000000000e+00
7.529066205024719238e-01 -3.003840148448944092e-01 8.584569394588470459e-02 3.000000000000000000e+00
6.254079937934875488e-01 -6.202576309442520142e-02 1.104855760931968689e-01 0.000000000000000000e+00
6.196545958518981934e-01 -3.372891619801521301e-02 1.325743645429611206e-01 0.000000000000000000e+00
5.789429545402526855e-01 3.324862942099571228e-02 7.982631772756576538e-02 0.000000000000000000e+00
7.398025393486022949e-01 -2.234344184398651123e-01 1.262810677289962769e-01 3.000000000000000000e+00
5.854431390762329102e-01 -7.639901340007781982e-02 1.758994460105895996e-01 0.000000000000000000e+00
5.873579382896423340e-01 5.300474166870117188e-02 1.344249099493026733e-01 0.000000000000000000e+00
5.778729915618896484e-01 3.835853189229965210e-02 9.088337421417236328e-02 0.000000000000000000e+00
5.826330184936523438e-01 -1.273027509450912476e-01 1.568063199520111084e-01 0.000000000000000000e+00
6.168884038925170898e-01 9.665526449680328369e-03 1.402632892131805420e-01 0.000000000000000000e+00
6.117987632751464844e-01 -5.155113339424133301e-02 1.500559449195861816e-01 0.000000000000000000e+00
5.905223488807678223e-01 -7.089653611183166504e-02 1.686179339885711670e-01 0.000000000000000000e+00
7.767896652221679688e-01 2.670570611953735352e-01 9.436168521642684937e-02 2.000000000000000000e+00
8.256061673164367676e-01 2.493612468242645264e-01 2.517518103122711182e-01 2.000000000000000000e+00
7.613947987556457520e-01 -2.549391686916351318e-01 6.523687392473220825e-02 3.000000000000000000e+00
5.680868625640869141e-01 -1.275136768817901611e-01 1.672954708337783813e-01 0.000000000000000000e+00
6.975184082984924316e-01 -1.648887991905212402e-01 1.471525579690933228e-01 3.000000000000000000e+00
5.985488891601562500e-01 -9.150022268295288086e-02 1.512697935104370117e-01 0.000000000000000000e+00
6.390179991722106934e-01 9.579022228717803955e-02 1.929493546485900879e-01 0.000000000000000000e+00
6.205085515975952148e-01 -1.248931605368852615e-02 1.744037568569183350e-01 0.000000000000000000e+00
6.450224518775939941e-01 9.765234589576721191e-02 2.207375913858413696e-01 0.000000000000000000e+00
1.629878401756286621e+00 4.071957767009735107e-01 6.258383989334106445e-01 1.000000000000000000e+00
5.622622370719909668e-01 5.577168613672256470e-02 6.914025545120239258e-02 0.000000000000000000e+00
8.288844823837280273e-01 2.886758446693420410e-01 2.070094048976898193e-01 2.000000000000000000e+00
5.838064551353454590e-01 -7.183172553777694702e-02 1.797613948583602905e-01 0.000000000000000000e+00
5.894363522529602051e-01 1.275195460766553879e-02 9.446024894714355469e-02 0.000000000000000000e+00
6.318032145500183105e-01 6.361189484596252441e-02 2.049058079719543457e-01 0.000000000000000000e+00
6.394364237785339355e-01 9.299179911613464355e-02 1.949831396341323853e-01 0.000000000000000000e+00
1.696060538291931152e+00 4.136115610599517822e-01 7.043737173080444336e-01 1.000000000000000000e+00
7.572981119155883789e-01 -2.479199618101119995e-01 8.860541135072708130e-02 3.000000000000000000e+00
8.088079690933227539e-01 2.322243303060531616e-01 2.164713293313980103e-01 2.000000000000000000e+00
8.126018643379211426e-01 2.224057465791702271e-01 2.356665432453155518e-01 2.000000000000000000e+00
5.659274458885192871e-01 6.457599252462387085e-02 9.828949719667434692e-02 0.000000000000000000e+00
6.371627449989318848e-01 -8.885022997856140137e-02 9.640672057867050171e-02 0.000000000000000000e+00
5.853100419044494629e-01 2.139252237975597382e-02 8.419616520404815674e-02 0.000000000000000000e+00
6.465317010879516602e-01 -9.787105768918991089e-02 1.190387904644012451e-01 0.000000000000000000e+00
6.088517308235168457e-01 -3.404899314045906067e-02 1.738517135381698608e-01 0.000000000000000000e+00
5.743721723556518555e-01 3.212946280837059021e-02 5.349598452448844910e-02 0.000000000000000000e+00
6.282273530960083008e-01 -6.605335325002670288e-02 1.119206398725509644e-01 0.000000000000000000e+00
7.646971344947814941e-01 -2.469206005334854126e-01 7.692519575357437134e-02 3.000000000000000000e+00
8.018301725387573242e-01 2.517474293708801270e-01 1.751383841037750244e-01 2.000000000000000000e+00
7.533643841743469238e-01 -2.747230231761932373e-01 5.443610996007919312e-02 3.000000000000000000e+00
6.170553565025329590e-01 -5.383472517132759094e-02 5.379009619355201721e-02 0.000000000000000000e+00
5.735042095184326172e-01 3.464703634381294250e-02 5.683664977550506592e-02 0.000000000000000000e+00
6.266278624534606934e-01 -6.775439530611038208e-02 7.705516368150711060e-02 0.000000000000000000e+00
6.806450486183166504e-01 -1.659759432077407837e-01 1.517142504453659058e-01 3.000000000000000000e+00
5.613957047462463379e-01 6.992010027170181274e-02 9.666510671377182007e-02 0.000000000000000000e+00
7.313164472579956055e-01 -1.946934610605239868e-01 1.041082665324211121e-01 3.000000000000000000e+00
5.874018073081970215e-01 3.285831958055496216e-02 1.283022314310073853e-01 0.000000000000000000e+00
5.788698196411132812e-01 3.669794276356697083e-02 9.017676860094070435e-02 0.000000000000000000e+00
5.906353592872619629e-01 1.101604104042053223e-02 9.465239197015762329e-02 0.000000000000000000e+00
6.066854000091552734e-01 -2.306946739554405212e-02 8.727099001407623291e-02 0.000000000000000000e+00
6.172851324081420898e-01 -4.556870460510253906e-02 9.708181768655776978e-02 0.000000000000000000e+00
8.071370124816894531e-01 2.738788425922393799e-01 1.702783405780792236e-01 2.000000000000000000e+00
6.179307699203491211e-01 -4.653800278902053833e-02 1.358921080827713013e-01 0.000000000000000000e+00
6.098446846008300781e-01 -2.773748524487018585e-02 1.004595234990119934e-01 0.000000000000000000e+00
6.447909474372863770e-01 9.954068809747695923e-02 2.187349647283554077e-01 0.000000000000000000e+00
6.199402809143066406e-01 -8.779341354966163635e-03 1.585252434015274048e-01 0.000000000000000000e+00
6.202411651611328125e-01 -5.873808637261390686e-02 5.961830914020538330e-02 0.000000000000000000e+00
5.704489946365356445e-01 7.785420864820480347e-02 1.220468953251838684e-01 0.000000000000000000e+00
6.446124911308288574e-01 2.932856418192386627e-02 2.052143663167953491e-01 0.000000000000000000e+00
5.691340565681457520e-01 -7.936386018991470337e-02 1.905229985713958740e-01 0.000000000000000000e+00
6.257196068763732910e-01 -4.194915760308504105e-03 1.880007088184356689e-01 0.000000000000000000e+00
6.195443868637084961e-01 -1.154586579650640488e-02 1.611961573362350464e-01 0.000000000000000000e+00
7.555900216102600098e-01 -2.439799010753631592e-01 9.516728669404983521e-02 3.000000000000000000e+00
5.766590237617492676e-01 3.913803026080131531e-02 8.381180465221405029e-02 0.000000000000000000e+00
6.442583799362182617e-01 9.753667563199996948e-02 2.175933867692947388e-01 0.000000000000000000e+00
8.272306323051452637e-01 2.313448041677474976e-01 2.658190131187438965e-01 2.000000000000000000e+00
6.101198792457580566e-01 -4.139981046319007874e-02 5.682546645402908325e-02 0.000000000000000000e+00
6.343428492546081543e-01 7.427486032247543335e-02 2.038372308015823364e-01 0.000000000000000000e+00
6.080179810523986816e-01 -6.030108034610748291e-02 1.500354856252670288e-01 0.000000000000000000e+00
6.006356477737426758e-01 -6.315229088068008423e-02 1.580680757761001587e-01 0.000000000000000000e+00
8.074853420257568359e-01 2.475011944770812988e-01 1.992563754320144653e-01 2.000000000000000000e+00
6.188977360725402832e-01 -1.337997335940599442e-02 1.490278691053390503e-01 0.000000000000000000e+00
8.190421462059020996e-01 2.461570799350738525e-01 2.265399992465972900e-01 2.000000000000000000e+00
8.433379530906677246e-01 2.647794783115386963e-01 2.747683823108673096e-01 2.000000000000000000e+00
7.711763381958007812e-01 2.547753751277923584e-01 1.040316000580787659e-01 2.000000000000000000e+00
5.946063995361328125e-01 -5.808411911129951477e-02 1.742183417081832886e-01 0.000000000000000000e+00
5.858269929885864258e-01 3.976026549935340881e-02 1.235894858837127686e-01 0.000000000000000000e+00
7.981324195861816406e-01 2.470152527093887329e-01 1.695690900087356567e-01 2.000000000000000000e+00
5.632305145263671875e-01 7.938919216394424438e-02 1.129420325160026550e-01 0.000000000000000000e+00
6.172267198562622070e-01 -5.292908847332000732e-02 7.497853785753250122e-02 0.000000000000000000e+00
6.114482879638671875e-01 -3.510616719722747803e-02 1.645614802837371826e-01 0.000000000000000000e+00
1.692767620086669922e+00 4.203827679157257080e-01 7.383525967597961426e-01 1.000000000000000000e+00
7.355202436447143555e-01 -2.144619524478912354e-01 1.562666743993759155e-01 3.000000000000000000e+00
7.507967948913574219e-01 -2.849847674369812012e-01 6.656844168901443481e-02 3.000000000000000000e+00
8.034138679504394531e-01 2.462532520294189453e-01 1.826740056276321411e-01 2.000000000000000000e+00
7.708150744438171387e-01 2.673023343086242676e-01 8.213929086923599243e-02 2.000000000000000000e+00
6.060494780540466309e-01 -1.942962035536766052e-02 9.260300546884536743e-02 0.000000000000000000e+00
8.225845694541931152e-01 2.214573472738265991e-01 2.618723213672637939e-01 2.000000000000000000e+00
6.288666725158691406e-01 1.548089180141687393e-02 1.767529398202896118e-01 0.000000000000000000e+00
7.628479003906250000e-01 -2.383590340614318848e-01 8.470363169908523560e-02 3.000000000000000000e+00
5.918228030204772949e-01 -5.733061116188764572e-03 5.070782452821731567e-02 0.000000000000000000e+00
6.010411381721496582e-01 -4.436955600976943970e-02 1.787930428981781006e-01 0.000000000000000000e+00
6.204474568367004395e-01 -5.783222988247871399e-02 8.277291059494018555e-02 0.000000000000000000e+00
6.336516141891479492e-01 -8.363519608974456787e-02 1.327337622642517090e-01 0.000000000000000000e+00
7.220121622085571289e-01 -1.857552081346511841e-01 1.480124145746231079e-01 3.000000000000000000e+00
6.455576419830322266e-01 1.035104244947433472e-01 2.180322110652923584e-01 0.000000000000000000e+00
6.456509828567504883e-01 1.054513603448867798e-01 2.190266996622085571e-01 0.000000000000000000e+00
5.852900743484497070e-01 1.266225241124629974e-02 6.411535292863845825e-02 0.000000000000000000e+00
6.190080642700195312e-01 -1.799857802689075470e-02 1.850609481334686279e-01 0.000000000000000000e+00
5.653113126754760742e-01 8.389826864004135132e-02 1.226340010762214661e-01 0.000000000000000000e+00
5.955000519752502441e-01 -9.725142270326614380e-02 1.558283567428588867e-01 0.000000000000000000e+00
5.703478455543518066e-01 5.657371133565902710e-02 9.905722737312316895e-02 0.000000000000000000e+00
5.936415791511535645e-01 1.332600484602153301e-03 1.066444814205169678e-01 0.000000000000000000e+00
1.741409659385681152e+00 3.649329245090484619e-01 8.322935104370117188e-01 1.000000000000000000e+00
5.703795552253723145e-01 -1.135661453008651733e-01 1.722242236137390137e-01 0.000000000000000000e+00
5.892542004585266113e-01 1.274801325052976608e-02 9.091559052467346191e-02 0.000000000000000000e+00
7.863999605178833008e-01 2.773984670639038086e-01 9.318329393863677979e-02 2.000000000000000000e+00
5.832687616348266602e-01 -6.741587072610855103e-02 1.848154664039611816e-01 0.000000000000000000e+00
6.349869370460510254e-01 8.097981661558151245e-02 1.945734322071075439e-01 0.000000000000000000e+00
7.762856483459472656e-01 2.564633786678314209e-01 1.232459992170333862e-01 2.000000000000000000e+00
8.359937667846679688e-01 2.824236750602722168e-01 2.374630421400070190e-01 2.000000000000000000e+00
6.196290850639343262e-01 -8.086020499467849731e-02 1.344172656536102295e-01 0.000000000000000000e+00
6.259682774543762207e-01 -5.130207631736993790e-03 1.908763051033020020e-01 0.000000000000000000e+00
6.075308918952941895e-01 -4.031800851225852966e-02 1.689439266920089722e-01 0.000000000000000000e+00
6.217419505119323730e-01 -5.424360558390617371e-02 1.061286330223083496e-01 0.000000000000000000e+00
8.252080678939819336e-01 2.307791709899902344e-01 2.614767253398895264e-01 2.000000000000000000e+00
7.684625983238220215e-01 -2.469903081655502319e-01 6.125783547759056091e-02 3.000000000000000000e+00
5.958396792411804199e-01 -1.021541561931371689e-02 5.816149711608886719e-02 0.000000000000000000e+00
5.972023010253906250e-01 -4.003731533885002136e-03 1.063934266567230225e-01 0.000000000000000000e+00
5.897999405860900879e-01 1.275982055813074112e-02 1.165105253458023071e-01 0.000000000000000000e+00
7.386624217033386230e-01 -2.197849601507186890e-01 1.492222994565963745e-01 3.000000000000000000e+00
7.761635184288024902e-01 2.656841278076171875e-01 9.891618043184280396e-02 2.000000000000000000e+00
6.323462724685668945e-01 7.781363278627395630e-02 1.909348666667938232e-01 0.000000000000000000e+00
6.114855408668518066e-01 -6.520509719848632812e-02 1.408588737249374390e-01 0.000000000000000000e+00
5.751856565475463867e-01 -1.007969304919242859e-01 1.702438741922378540e-01 0.000000000000000000e+00
7.502757310867309570e-01 -2.825489640235900879e-01 7.659349590539932251e-02 3.000000000000000000e+00
7.969833016395568848e-01 2.561691403388977051e-01 1.610041111707687378e-01 2.000000000000000000e+00
6.071895360946655273e-01 -8.104810863733291626e-02 1.443973481655120850e-01 0.000000000000000000e+00
5.721971988677978516e-01 -7.723072916269302368e-02 1.915484219789505005e-01 0.000000000000000000e+00
5.830795168876647949e-01 4.740070551633834839e-02 1.230098679661750793e-01 0.000000000000000000e+00
7.597934603691101074e-01 -3.439276516437530518e-01 5.490065738558769226e-02 3.000000000000000000e+00
5.719043016433715820e-01 -1.189876645803451538e-01 1.667136847972869873e-01 0.000000000000000000e+00
7.501684427261352539e-01 -2.869839966297149658e-01 9.448443353176116943e-02 3.000000000000000000e+00
6.032559871673583984e-01 -4.183380678296089172e-02 1.758528947830200195e-01 0.000000000000000000e+00
8.045551776885986328e-01 2.466030716896057129e-01 1.877334415912628174e-01 2.000000000000000000e+00
5.841936469078063965e-01 5.707577615976333618e-02 1.328294128179550171e-01 0.000000000000000000e+00
7.508207559585571289e-01 -2.637169063091278076e-01 8.784754574298858643e-02 3.000000000000000000e+00
6.192770004272460938e-01 -1.061723846942186356e-02 1.546610742807388306e-01 0.000000000000000000e+00
5.819324851036071777e-01 1.779729127883911133e-02 6.374754756689071655e-02 0.000000000000000000e+00
7.232131958007812500e-01 -1.806708723306655884e-01 1.212920099496841431e-01 3.000000000000000000e+00
5.718981027603149414e-01 3.881490603089332581e-02 5.753045529127120972e-02 0.000000000000000000e+00
7.973321676254272461e-01 2.420107424259185791e-01 1.693990677595138550e-01 2.000000000000000000e+00
5.934376716613769531e-01 -5.619974061846733093e-02 1.783014386892318726e-01 0.000000000000000000e+00
5.884435772895812988e-01 -8.381182700395584106e-02 1.697796732187271118e-01 0.000000000000000000e+00
6.476548910140991211e-01 1.009487956762313843e-01 2.264682948589324951e-01 0.000000000000000000e+00
5.897596478462219238e-01 1.187932863831520081e-02 1.006693989038467407e-01 0.000000000000000000e+00
7.923128604888916016e-01 2.404872477054595947e-01 1.588788628578186035e-01 2.000000000000000000e+00
7.158077955245971680e-01 -1.713475435972213745e-01 1.392671763896942139e-01 3.000000000000000000e+00
5.916052460670471191e-01 4.809379205107688904e-02 1.415735930204391479e-01 0.000000000000000000e+00
5.898147821426391602e-01 1.363984309136867523e-02 1.138743460178375244e-01 0.000000000000000000e+00
8.413504362106323242e-01 2.905076146125793457e-01 2.364748716354370117e-01 2.000000000000000000e+00
5.743798613548278809e-01 5.097688362002372742e-02 1.066109538078308105e-01 0.000000000000000000e+00
5.732375979423522949e-01 4.318070411682128906e-02 7.818467170000076294e-02 0.000000000000000000e+00
7.677247524261474609e-01 2.650856077671051025e-01 7.493966072797775269e-02 2.000000000000000000e+00
6.030073165893554688e-01 -9.128240495920181274e-02 1.452015340328216553e-01 0.000000000000000000e+00
6.326896548271179199e-01 -7.784632593393325806e-02 1.117719560861587524e-01 0.000000000000000000e+00
6.642767786979675293e-01 -1.629752814769744873e-01 1.550011336803436279e-01 3.000000000000000000e+00
5.939739346504211426e-01 -8.016998320817947388e-02 1.642880588769912720e-01 0.000000000000000000e+00
5.925474762916564941e-01 -3.972524777054786682e-03 5.607257783412933350e-02 0.000000000000000000e+00
6.287131905555725098e-01 5.486130714416503906e-02 2.095299512147903442e-01 0.000000000000000000e+00
5.975460410118103027e-01 -6.282744556665420532e-02 1.626023799180984497e-01 0.000000000000000000e+00
8.260414600372314453e-01 2.186919152736663818e-01 2.777571976184844971e-01 2.000000000000000000e+00
7.630104422569274902e-01 2.554916739463806152e-01 6.423728913068771362e-02 2.000000000000000000e+00
8.256894946098327637e-01 2.555439174175262451e-01 2.382306605577468872e-01 2.000000000000000000e+00
6.243679523468017578e-01 -6.285385042428970337e-02 8.422716706991195679e-02 0.000000000000000000e+00
6.378603577613830566e-01 -8.799615502357482910e-02 1.250531375408172607e-01 0.000000000000000000e+00
5.974136590957641602e-01 -4.944798722863197327e-02 1.794960349798202515e-01 0.000000000000000000e+00
7.265757322311401367e-01 -2.021008133888244629e-01 1.608684211969375610e-01 3.000000000000000000e+00
1.738533139228820801e+00 3.954461514949798584e-01 7.946166396141052246e-01 1.000000000000000000e+00
6.189775466918945312e-01 -5.123282968997955322e-02 1.296599209308624268e-01 0.000000000000000000e+00
5.868721604347229004e-01 2.582618407905101776e-02 1.150568500161170959e-01 0.000000000000000000e+00
6.204627156257629395e-01 -3.932538256049156189e-02 1.244185492396354675e-01 0.000000000000000000e+00
8.131274580955505371e-01 2.904647588729858398e-01 1.630527228116989136e-01 2.000000000000000000e+00
6.005719900131225586e-01 -6.493709236383438110e-02 1.580513119697570801e-01 0.000000000000000000e+00
7.316787242889404297e-01 -1.969724893569946289e-01 1.216204911470413208e-01 3.000000000000000000e+00
6.094203591346740723e-01 -3.226290643215179443e-02 1.767408996820449829e-01 0.000000000000000000e+00
7.903217077255249023e-01 2.445979118347167969e-01 1.561220884323120117e-01 2.000000000000000000e+00
8.342508077621459961e-01 2.868119478225708008e-01 2.270137369632720947e-01 2.000000000000000000e+00
6.480437517166137695e-01 1.126080080866813660e-01 2.082398086786270142e-01 0.000000000000000000e+00
6.173288226127624512e-01 -7.595632970333099365e-02 1.339182555675506592e-01 0.000000000000000000e+00
5.717044472694396973e-01 5.415020138025283813e-02 1.044089794158935547e-01 0.000000000000000000e+00
6.242377161979675293e-01 -4.608053422998636961e-04 1.707966774702072144e-01 0.000000000000000000e+00
5.700598359107971191e-01 -7.184081524610519409e-02 1.950841099023818970e-01 0.000000000000000000e+00
6.750748753547668457e-01 -1.646176427602767944e-01 1.534932851791381836e-01 3.000000000000000000e+00
7.564947605133056641e-01 -2.668381333351135254e-01 5.691891163587570190e-02 3.000000000000000000e+00
6.285454034805297852e-01 -7.171160727739334106e-02 8.760311454534530640e-02 0.000000000000000000e+00
7.549217343330383301e-01 -2.392602860927581787e-01 9.958694875240325928e-02 3.000000000000000000e+00
7.215109467506408691e-01 -1.759411245584487915e-01 1.080930083990097046e-01 3.000000000000000000e+00
6.190317869186401367e-01 -7.843196392059326172e-03 1.509067118167877197e-01 0.000000000000000000e+00
6.093230247497558594e-01 -3.589294478297233582e-02 1.730774939060211182e-01 0.000000000000000000e+00
6.485831737518310547e-01 1.136690899729728699e-01 1.997069567441940308e-01 0.000000000000000000e+00
7.763517498970031738e-01 2.784856855869293213e-01 6.072879955172538757e-02 2.000000000000000000e+00
6.061421632766723633e-01 -3.480152040719985962e-02 1.821185648441314697e-01 0.000000000000000000e+00
5.986349582672119141e-01 -9.419195353984832764e-02 1.503986865282058716e-01 0.000000000000000000e+00
7.229617238044738770e-01 -1.795297563076019287e-01 9.968403726816177368e-02 3.000000000000000000e+00
6.186992526054382324e-01 -1.522124931216239929e-02 1.425205916166305542e-01 0.000000000000000000e+00
5.672115683555603027e-01 -1.027834936976432800e-01 1.754976063966751099e-01 0.000000000000000000e+00
6.264052987098693848e-01 -6.773032993078231812e-02 7.048785686492919922e-02 0.000000000000000000e+00
7.277213931083679199e-01 -1.872240304946899414e-01 1.057672575116157532e-01 3.000000000000000000e+00
5.717740058898925781e-01 4.307045415043830872e-02 6.945709884166717529e-02 0.000000000000000000e+00
6.027758717536926270e-01 -4.180051386356353760e-02 1.784100532531738281e-01 0.000000000000000000e+00
1.626503109931945801e+00 4.015007317066192627e-01 6.124128103256225586e-01 1.000000000000000000e+00
8.270993232727050781e-01 2.880541086196899414e-01 2.028627246618270874e-01 2.000000000000000000e+00
6.085906028747558594e-01 -6.489640474319458008e-02 1.483613699674606323e-01 0.000000000000000000e+00
6.279607415199279785e-01 -6.789851188659667969e-02 9.876078367233276367e-02 0.000000000000000000e+00
8.046595454216003418e-01 2.478352040052413940e-01 1.865576654672622681e-01 2.000000000000000000e+00
5.789354443550109863e-01 2.202301286160945892e-02 5.219405144453048706e-02 0.000000000000000000e+00
6.186819076538085938e-01 -3.736700117588043213e-02 1.434393525123596191e-01 0.000000000000000000e+00
5.901660323143005371e-01 -1.315880217589437962e-03 5.056586861610412598e-02 0.000000000000000000e+00
6.140070557594299316e-01 -3.983200341463088989e-02 1.524291336536407471e-01 0.000000000000000000e+00
6.339963078498840332e-01 -8.084389567375183105e-02 5.526687949895858765e-02 0.000000000000000000e+00
5.879936218261718750e-01 1.710567250847816467e-02 9.072110056877136230e-02 0.000000000000000000e+00
7.531208992004394531e-01 -2.690178751945495605e-01 1.161984577775001526e-01 3.000000000000000000e+00
6.335586905479431152e-01 -7.984314858913421631e-02 5.995345860719680786e-02 0.000000000000000000e+00
5.967105627059936523e-01 -5.650969222187995911e-02 1.721648871898651123e-01 0.000000000000000000e+00
6.242383122444152832e-01 1.629799976944923401e-02 1.614863872528076172e-01 0.000000000000000000e+00
5.980913043022155762e-01 -4.009691067039966583e-03 7.979040592908859253e-02 0.000000000000000000e+00
6.010553240776062012e-01 -6.678229570388793945e-02 1.563855707645416260e-01 0.000000000000000000e+00
6.164454221725463867e-01 -5.286209285259246826e-02 1.355654597282409668e-01 0.000000000000000000e+00
7.397673130035400391e-01 -2.223204523324966431e-01 1.262750476598739624e-01 3.000000000000000000e+00
5.746745467185974121e-01 -1.075643301010131836e-01 1.692354679107666016e-01 0.000000000000000000e+00
7.891187071800231934e-01 2.771805226802825928e-01 1.311682313680648804e-01 2.000000000000000000e+00
5.950217843055725098e-01 1.335698761977255344e-03 8.736812323331832886e-02 0.000000000000000000e+00
6.104876995086669922e-01 -5.235119536519050598e-02 1.515554487705230713e-01 0.000000000000000000e+00
6.173142194747924805e-01 -2.071147970855236053e-02 1.274700611829757690e-01 0.000000000000000000e+00
7.702863812446594238e-01 2.717144787311553955e-01 5.336110293865203857e-02 2.000000000000000000e+00
6.369393467903137207e-01 8.027881383895874023e-02 2.113214880228042603e-01 0.000000000000000000e+00
6.524949669837951660e-01 -1.036397293210029602e-01 1.230563148856163025e-01 0.000000000000000000e+00
6.996489167213439941e-01 -1.560007780790328979e-01 6.412051618099212646e-02 3.000000000000000000e+00
5.884392857551574707e-01 -7.415705174207687378e-02 1.741666942834854126e-01 0.000000000000000000e+00
6.392275691032409668e-01 4.052437469363212585e-02 1.987330466508865356e-01 0.000000000000000000e+00
7.397596836090087891e-01 -2.190081179141998291e-01 1.185503378510475159e-01 3.000000000000000000e+00
8.438092470169067383e-01 2.712201178073883057e-01 2.711463272571563721e-01 2.000000000000000000e+00
8.209861516952514648e-01 2.700066864490509033e-01 2.123837769031524658e-01 2.000000000000000000e+00
6.190741658210754395e-01 -1.800050027668476105e-02 1.896974146366119385e-01 0.000000000000000000e+00
7.556985020637512207e-01 -3.195317387580871582e-01 7.038439065217971802e-02 3.000000000000000000e+00
7.361387610435485840e-01 -2.102505266666412354e-01 1.300474405288696289e-01 3.000000000000000000e+00
7.517430782318115234e-01 -2.584347724914550781e-01 1.227131783962249756e-01 3.000000000000000000e+00
6.057286262512207031e-01 -7.362560182809829712e-02 1.494705528020858765e-01 0.000000000000000000e+00
5.670614242553710938e-01 -1.061393544077873230e-01 1.771426796913146973e-01 0.000000000000000000e+00
5.614489316940307617e-01 -1.628690958023071289e-01 1.703650355339050293e-01 0.000000000000000000e+00
6.508964300155639648e-01 1.602320186793804169e-02 2.159521281719207764e-01 0.000000000000000000e+00
6.114276051521301270e-01 -3.419304266571998596e-02 1.654678434133529663e-01 0.000000000000000000e+00
8.347317576408386230e-01 2.770173251628875732e-01 2.408395558595657349e-01 2.000000000000000000e+00
5.958147644996643066e-01 -1.465824525803327560e-02 5.104985833168029785e-02 0.000000000000000000e+00
7.684601545333862305e-01 2.641933858394622803e-01 5.667304247617721558e-02 2.000000000000000000e+00
5.720063447952270508e-01 -1.181557476520538330e-01 1.667434424161911011e-01 0.000000000000000000e+00
7.773581147193908691e-01 1.942089349031448364e-01 2.184888124465942383e-01 2.000000000000000000e+00
7.791350483894348145e-01 2.667013108730316162e-01 1.097535192966461182e-01 2.000000000000000000e+00
5.666922926902770996e-01 -9.930853545665740967e-02 1.778725832700729370e-01 0.000000000000000000e+00
5.636644363403320312e-01 7.104335725307464600e-02 1.054627597332000732e-01 0.000000000000000000e+00
6.158154010772705078e-01 -1.698726415634155273e-02 1.253236085176467896e-01 0.000000000000000000e+00
1.698151946067810059e+00 4.115888178348541260e-01 8.217499256134033203e-01 1.000000000000000000e+00
7.622037529945373535e-01 2.540847361087799072e-01 7.099027931690216064e-02 2.000000000000000000e+00
5.784885287284851074e-01 6.169524416327476501e-02 1.254925578832626343e-01 0.000000000000000000e+00
6.310380101203918457e-01 -7.293717563152313232e-02 1.086566150188446045e-01 0.000000000000000000e+00
5.959608554840087891e-01 -8.439754135906696320e-03 6.261767446994781494e-02 0.000000000000000000e+00
1.706826806068420410e+00 4.009627997875213623e-01 7.979449033737182617e-01 1.000000000000000000e+00
